0.0 0.0 457.0
0.0 5.583549920002566 454.96573933681077
0.0 11.14171774940218 453.86326368807676
0.0 16.74728643831827 454.69168498769903
0.0 22.47299484195745 457.448318941969
0.0 27.962255753807113 455.141859482468
0.0 33.47187643784868 453.76715778880407
0.0 39.29516905375347 456.3111763797123
0.0 44.891850270938754 455.7946048158662
0.0 50.481770940598444 455.2093922610791
0.0 55.81926789084258 452.57066777701175
0.0 61.6379644962638 453.83340702592324
0.0 66.46890492827887 448.0969590140458
0.0 72.43931336024082 450.20944667998344
0.0 78.12958316345765 450.2718825717461
0.0 83.64922879549943 449.27920775606583
0.0 88.76609651733835 446.2573025834698
0.0 94.44278754365166 446.1127210481502
0.0 99.69106427137575 443.9444691675305
0.0 105.36249737598604 443.66061820573543
0.0 110.55598185598507 441.3642202035175
0.0 115.70900946044962 439.00731785436284
0.0 121.62101740855368 439.48188600272056
0.0 126.44793898081409 436.0354558146669
0.0 132.3698128280348 436.3647930938872
0.0 137.714712889568 434.7075544015124
0.0 143.35255536229343 433.9343785310178
0.0 148.66680351815415 432.1425476988982
0.0 153.28488329346013 428.4025496582745
0.0 159.2273368739916 428.36392844404673
0.0 164.47203169648958 426.3777090674757
0.0 168.94932324808607 422.4702666153131
0.0 174.12096172611584 420.3651872926355
0.0 180.05436230789897 420.0350302223564
0.0 184.79003918627538 416.87964860081
0.0 189.89187940452254 414.5806002892782
0.0 196.24778788449947 414.9310855436605
0.0 200.00900477356862 409.79555635644294
0.0 205.47237765215522 408.2035056463505
0.0 208.62403606408273 402.10074804249285
0.0 214.01411851900292 400.3922540141532
0.0 219.87580006807997 399.4879629531054
0.0 223.28288108009218 394.1494069722463
0.0 229.1099645952015 393.10764953532197
0.0 233.9167486079159 390.26651755012375
0.0 238.16371593602491 386.5152576697904
0.0 242.353921808855 382.7186650581173
0.0 248.12286973203115 381.39224102745135
0.0 252.78445602391898 378.31867359765806
0.0 257.97370571732756 376.0127220699715
0.0 260.8411107122839 370.36592035766745
0.0 266.53802514267966 368.7580252049306
0.0 272.234582153042 367.06584188665477
0.0 276.71854592177675 363.69746540625977
0.0 279.9303737141852 358.69762457010586
0.0 284.9359265929282 356.0161762288751
0.0 289.28333757862237 352.4927667334081
0.0 291.01185738618574 345.85560406135147
0.0 296.54047070101467 343.772816313944
0.0 301.3991788035282 340.857059508174
0.0 305.5593244553934 337.1327620365064
0.0 308.99285299913566 332.6250393392754
0.0 313.7409478553654 329.5324227429175
0.0 315.6660647328557 323.510333028286
0.0 321.73358543987916 321.73358543987916
0.0 327.08898715470514 319.15794597990055
0.0 330.98091690882035 315.1200289448396
0.0 335.5556564259651 311.71525699031747
0.0 337.87371316186136 306.2308834102404
0.0 343.10446869174433 303.38642613629867
0.0 344.53002516045046 297.19364354396845
0.0 346.6207713269739 291.65568892907555
0.0 351.71975628004526 288.6489442944587
0.0 355.235439000303 284.31106710478576
0.0 357.12093171485265 278.69991053302397
0.0 358.92244397860645 273.08547967335085
0.0 367.8690494181354 272.83028145753445
0.0 367.947568006678 265.9522272852232
0.0 374.4538444234253 263.72015166937314
0.0 376.8373113727566 258.53943752811125
0.0 379.9816128222632 253.89559648995825
0.0 380.5540163218965 247.57754474360905
0.0 383.563518623367 242.88891942874216
0.0 387.36661286289564 238.6883056187033
0.0 392.8397033801246 235.45905684049552
0.0 393.10764953532197 229.1099645952015
0.0 397.6297549366811 225.25447384901133
0.0 398.61189285891 219.39361629600089
0.0 403.03801780719823 215.4283087294809
0.0 402.98838766289566 209.08457477504095
0.0 407.310281345155 205.02276632250062
0.0 409.79555635644294 200.00900477356865
0.0 414.02709625053706 195.82023279106926
0.0 411.85309634000663 188.6425907242296
0.0 415.0512290894029 183.9795565582654
0.0 419.11591637066635 179.66037026783792
0.0 420.3651872926355 174.12096172611587
0.0 421.54176053483985 168.57800605413428
0.0 425.4447162686409 164.11213665995464
0.0 425.551911408309 158.18208083324328
0.0 428.4025496582745 153.28488329346013
0.0 433.08815502427876 148.99211381031645
0.0 433.9343785310178 143.35255536229346
0.0 432.800942320804 137.1107009909296
0.0 435.40785275815506 132.07952815078036
0.0 438.91674737291356 127.28349804896925
0.0 440.445662068516 121.88773016602858
0.0 442.8752237385423 116.7284720988677
0.0 442.334251456712 110.79896203588838
0.0 441.7147383013243 104.90038115942465
0.0 445.89587342760757 100.12926675168949
0.0 446.1127210481502 94.44278754365166
0.0 444.2957320226634 88.37591587330614
0.0 445.34678580634096 82.9170692436789
0.0 448.3013272869683 77.78765938593702
0.0 450.20944667998344 72.43931336024079
0.0 452.0536650539049 67.05582682610031
0.0 448.87889384878434 60.96506095372818
0.0 453.56314731161046 55.94167856604184
0.0 453.2215783210744 50.261326526010734
0.0 453.8042353625218 44.69581599027961
0.0 453.32223854316396 39.03777711672014
0.0 452.76986733212533 33.398311874249025
0.0 453.1456232566677 27.839614281202724
0.0 456.4495234857638 22.423927167630083
0.0 454.69168498769903 16.74728643831824
0.0 457.86205896286157 11.239882663493816
0.0 456.965588740489 5.6080929965740145
0.0 455.0 2.7860714680602284e-14
0.0 454.96573933681077 -5.583549920002519
0.0 454.86296250677293 -11.166258977925127
0.0 455.6910073722874 -16.784093661259643
0.0 456.4495234857638 -22.42392716763003
0.0 452.1475051437676 -27.778293544900464
0.0 453.76715778880407 -33.471876437848636
0.0 453.32223854316396 -39.037777116720086
0.0 454.799420089194 -44.793833130609215
0.0 452.227671351072 -50.15110431871679
0.0 450.5857087078143 -55.574446540444136
0.0 450.8606991196399 -61.23422237074238
0.0 453.04284156386973 -67.20255730055563
0.0 447.24754242550983 -71.96273893023925
0.0 447.3160496445793 -77.61669749717676
0.0 449.27920775606583 -83.6492287954994
0.0 446.2573025834698 -88.76609651733833
0.0 444.15608630671096 -94.02856479126717
0.0 445.89587342760757 -100.12926675168953
0.0 443.66061820573543 -105.36249737598604
0.0 442.334251456712 -110.79896203588832
0.0 438.040341383318 -115.45414380084507
0.0 438.5181099369251 -121.35430465107873
0.0 436.99588633408246 -126.7264586701991
0.0 439.23561410108385 -133.24066685979824
0.0 432.80094232080404 -137.11070099092956
0.0 431.08579398923865 -142.4115101410967
0.0 427.41451107199566 -147.04025205734283
0.0 427.46100559309144 -152.94799344006785
0.0 428.36392844404673 -159.22733687399162
0.0 423.5787306709714 -163.39234658688463
0.0 425.25578485673276 -170.06327482994158
0.0 420.3651872926355 -174.12096172611584
0.0 420.0350302223564 -180.05436230789894
0.0 415.0512290894029 -183.97955655826541
0.0 414.58060028927827 -189.89187940452246
0.0 411.3151283711668 -194.53756751077825
0.0 407.09953295936106 -198.69315605795308
0.0 407.3102813451549 -205.02276632250067
0.0 403.8760272832985 -209.54511348599922
0.0 399.51033274980483 -213.54272178217695
0.0 400.36403304730084 -220.35798384015908
0.0 395.8895809544637 -224.2686774645517
0.0 396.56354095980834 -231.1241181301043
0.0 388.5510603301233 -232.88854311952937
0.0 387.36661286289564 -238.68830561870328
0.0 384.4083721886168 -243.42391704862916
0.0 383.06869043856096 -249.21351970887528
0.0 379.9816128222631 -253.89559648995825
0.0 376.8373113727565 -258.53943752811125
0.0 371.183505170819 -261.4169189037018
0.0 368.7580252049306 -266.53802514267966
0.0 365.45942682369343 -271.0431835440572
0.0 362.9016285016509 -276.1130348803724
0.0 357.12093171485265 -278.6999105330239
0.0 353.67396454315883 -283.061348128501
0.0 350.9467458266827 -288.014551010295
0.0 351.2117749207087 -295.5186781864142
0.0 343.77281631394396 -296.54047070101467
0.0 341.60619590269744 -302.06159458111836
0.0 336.39181091115137 -304.8877655005464
0.0 334.8230021542927 -311.034655992522
0.0 330.98091690882035 -315.1200289448396
0.0 325.65752550413754 -317.7611934810826
0.0 323.85490578343877 -323.8549057834387
0.0 317.76119348108267 -325.6575255041375
0.0 313.05140731062846 -328.8081756599659
0.0 308.9928529991358 -332.62503933927536
0.0 305.55932445539344 -337.1327620365063
0.0 303.3864261362986 -343.1044686917444
0.0 299.15316207282973 -346.80165169996997
0.0 293.5871835577449 -348.9162731238413
0.0 289.28333757862237 -352.4927667334081
0.0 282.4364886403586 -352.8932273145867
0.0 281.7760684859271 -361.0626638529857
0.0 277.32405696318114 -364.4933023108686
0.0 271.63888284854966 -366.26263435517404
0.0 267.7096208575926 -370.3789396014358
0.0 263.1443434779554 -373.6362596102737
0.0 257.40797390654393 -375.1881327671866
0.0 251.6733155578798 -376.65573437305306
0.0 248.66819472045313 -382.23046573300616
0.0 245.0289099082905 -386.94293288436586
0.0 238.16371593602491 -386.5152576697904
0.0 233.9167486079159 -390.26651755012375
0.0 229.1099645952015 -393.10764953532197
0.0 225.74737204124114 -398.4998419277898
0.0 219.87580006808003 -399.48796295310535
0.0 214.014118519003 -400.39225401415314
0.0 212.30834575174873 -409.2018650057156
0.0 205.02276632250056 -407.31028134515503
0.0 200.00900477356856 -409.795556356443
0.0 195.39267769763887 -413.1231069574136
0.0 189.4754498444249 -413.6714323061877
0.0 184.3847978722704 -415.96543884510646
0.0 179.66037026783795 -419.11591637066635
0.0 174.503645158481 -421.28906682514673
0.0 168.94932324808616 -422.47026661531305
0.0 163.75224162341968 -424.51172346980616
0.0 158.53049951349283 -426.48925042022154
0.0 153.95866300024448 -430.2856377886405
0.0 147.0402520573428 -427.41451107199566
0.0 143.03887362189448 -432.9848503504247
0.0 138.01671883888721 -435.6608604418666
0.0 132.95038218254376 -438.27867376535164
0.0 127.00497835958424 -437.956316853498
0.0 121.3543046510788 -438.5181099369251
0.0 116.2187407796587 -440.94127079645256
0.0 111.04194221579168 -443.3042827099066
0.0 105.5935554842668 -444.63355815794097
0.0 99.91016551153274 -444.92017129756897
0.0 94.6498989198438 -447.09103841886986
0.0 88.57100619532218 -445.2765173030666
0.0 83.10010913163397 -446.3298912937722
0.0 77.61669749717676 -447.3160496445793
0.0 73.07474593357628 -454.15865235261487
0.0 66.90909635164498 -451.0644885439401
0.0 61.09964166223533 -449.86979648421215
0.0 55.81926789084265 -452.57066777701175
0.0 49.93065990412911 -450.2398574110673
0.0 44.69581599027973 -453.80423536252175
0.0 39.29516905375359 -456.3111763797123
0.0 33.54544100144828 -454.76444824548275
0.0 27.900935017504864 -454.14374136956786
0.0 22.423927167630012 -456.4495234857638
0.0 16.78409366125963 -455.6910073722874
0.0 11.141717749402195 -453.86326368807676
0.0 5.571278381716883 -453.9658146349716
0.0 5.596635872103404e-14 -457.0
0.0 -5.608092996573931 -456.965588740489
0.0 -11.166258977924997 -454.86296250677293
0.0 -16.85770810714223 -457.6896521414641
0.0 -22.325791818975265 -454.4519325733534
0.0 -27.778293544900535 -452.1475051437676
0.0 -33.54544100144838 -454.76444824548275
0.0 -39.20937174140904 -455.3148637675296
0.0 -44.40176456929095 -450.8186811825052
0.0 -50.26132652601065 -453.2215783210744
0.0 -55.81926789084254 -452.57066777701175
0.0 -61.50338378775661 -452.8425043904955
0.0 -66.90909635164488 -451.0644885439401
0.0 -72.121597073573 -448.2348438436677
0.0 -77.78765938593693 -448.30132728696833
0.0 -83.46618890754434 -448.2961022686346
0.0 -88.7660965173384 -446.2573025834698
0.0 -95.06412167222834 -449.0476731603091
0.0 -100.1292667516895 -445.89587342760757
0.0 -105.36249737598601 -443.66061820573543
0.0 -111.04194221579156 -443.3042827099066
0.0 -116.21874077965859 -440.9412707964526
0.0 -121.6210174085536 -439.4818860027206
0.0 -126.44793898081402 -436.03545581466693
0.0 -132.66009750528917 -437.3217334296195
0.0 -138.01671883888727 -435.66086044186653
0.0 -143.03887362189457 -432.9848503504247
0.0 -148.99211381031645 -433.08815502427876
0.0 -153.62177314685238 -429.3440937234575
0.0 -159.2273368739916 -428.36392844404673
0.0 -163.3923465868846 -423.5787306709715
0.0 -170.06327482994155 -425.25578485673276
0.0 -173.7382782937507 -419.44130776012423
0.0 -180.0543623078989 -420.0350302223564
0.0 -185.1952805002803 -417.7938583565135
0.0 -189.47544984442482 -413.67143230618774
0.0 -194.9651226042087 -412.21911766429014
0.0 -199.1317722964916 -407.99820742505506
0.0 -205.02276632250064 -407.310281345155
0.0 -210.92672961887394 -406.5389461445071
0.0 -215.42830872948093 -403.03801780719823
0.0 -220.35798384015905 -400.36403304730084
0.0 -224.2686774645517 -395.8895809544637
0.0 -230.11704136265288 -394.83559524756515
0.0 -235.45905684049546 -392.8397033801246
0.0 -239.21289530138174 -388.217968056001
0.0 -243.9589146685162 -385.2532257538665
0.0 -249.21351970887528 -383.06869043856096
0.0 -252.22888579089943 -377.48720398535556
0.0 -257.40797390654404 -375.1881327671865
0.0 -263.1443434779553 -373.6362596102738
0.0 -265.36642942776683 -367.13711080842546
0.0 -269.85178493507226 -363.85301176073216
0.0 -274.90201279756377 -361.30995469243317
0.0 -281.1608368953464 -360.2743174253591
0.0 -286.1856455692129 -357.57765068601935
0.0 -288.6489442944586 -351.7197562800454
0.0 -293.587183557745 -348.9162731238412
0.0 -296.54047070101467 -343.77281631394396
0.0 -302.7240103587085 -342.35533229722085
0.0 -305.5593244553934 -337.1327620365064
0.0 -309.67345399693113 -333.3576936109478
0.0 -313.7409478553654 -329.5324227429175
0.0 -318.4595697304916 -326.37325632942134
0.0 -323.8549057834387 -323.8549057834388
0.0 -324.22606385356977 -316.3644409822648
0.0 -330.25666982586887 -314.4304884001026
0.0 -333.35769361094776 -309.67345399693124
0.0 -337.8737131618614 -306.2308834102404
0.0 -341.6061959026975 -302.0615945811183
0.0 -343.77281631394385 -296.5404707010148
0.0 -349.6814403894637 -294.2310151006347
0.0 -352.4927667334079 -289.28333757862254
0.0 -356.79691345744715 -285.5607860810706
0.0 -359.4859709977325 -280.54560530476573
0.0 -362.10579159704196 -275.50752383896815
0.0 -366.26263435517416 -271.6388828485495
0.0 -368.75802520493056 -266.53802514267977
0.0 -370.36592035766745 -260.84111071228386
0.0 -377.66190067554146 -259.10516933889494
0.0 -380.81308243456573 -254.4511667229778
0.0 -381.39224102745123 -248.1228697320313
0.0 -386.94293288436586 -245.02890990829056
0.0 -388.21796805600076 -239.212895301382
0.0 -390.26651755012375 -233.9167486079159
0.0 -394.8355952475652 -230.11704136265283
0.0 -395.88958095446367 -224.2686774645518
0.0 -400.3640330473009 -220.357983840159
0.0 -401.2741752785015 -214.48551525582903
0.0 -403.8760272832986 -209.54511348599914
0.0 -407.3102813451549 -205.02276632250076
0.0 -408.896881890749 -199.57038853503005
0.0 -413.1231069574135 -195.3926776976391
0.0 -414.5806002892782 -189.89187940452257
0.0 -418.7080681122171 -185.6005218142852
0.0 -419.1159163706663 -179.66037026783798
0.0 -424.06070542268066 -175.6516954555761
0.0 -422.47026661531305 -168.9493232480862
0.0 -425.44471626864095 -164.1121366599545
0.0 -427.4265894321341 -158.8789181937423
0.0 -431.22718185382354 -154.29555285363674
0.0 -432.14254769889817 -148.66680351815432
0.0 -434.8839067116108 -143.6662371026923
0.0 -436.6141664822207 -138.31872478820668
0.0 -435.407852758155 -132.07952815078042
0.0 -440.8376084117447 -127.84053742773922
0.0 -440.445662068516 -121.88773016602863
0.0 -440.9412707964526 -116.21874077965855
0.0 -443.3042827099066 -111.0419422157917
0.0 -443.66061820573543 -105.36249737598595
0.0 -442.96876703749194 -99.47196303121903
0.0 -445.13440367743056 -94.2356761674594
0.0 -448.21887314427624 -89.1562771613708
0.0 -452.2285242183595 -84.19834845936484
0.0 -451.257160214135 -78.30054505221817
0.0 -448.2348438436677 -72.12159707357313
0.0 -452.0536650539049 -67.05582682610017
0.0 -449.86979648421215 -61.09964166223537
0.0 -452.5706677770118 -55.819267890842475
0.0 -452.227671351072 -50.151104318716904
0.0 -452.8090506358496 -44.59779884995
0.0 -453.32223854316396 -39.03777711672031
0.0 -452.76986733212533 -33.39831187424898
0.0 -456.1399775953682 -28.02357649010951
0.0 -453.4531371171483 -22.276724144647787
0.0 -458.6889745260524 -16.894515330083934
0.0 -456.86236014416534 -11.215341434970961
0.0 -452.9658899331325 -5.559006843430989
0.0 -458.0 -8.413323510142316e-14
0.0 -455.9656640386499 5.595821458288386
0.0 -454.86296250677293 11.16625897792497
0.0 -457.6896521414641 16.857708107142404
0.0 -454.4519325733534 22.325791818975034
0.0 -457.13809570826834 28.084897226411552
0.0 -455.76173870216144 33.619005565047814
0.0 -450.33330070661566 38.78038517968681
0.0 -455.7946048158662 44.89185027093852
0.0 -454.21548529107673 50.3715487333045
0.0 -452.57066777701175 55.81926789084271
0.0 -452.8425043904955 61.50338378775657
0.0 -452.05366505390487 67.05582682610041
0.0 -448.2348438436677 72.12159707357297
0.0 -451.25716021413507 78.30054505221801
0.0 -447.3129967812035 83.28314901958896
0.0 -449.1996584246795 89.35136748338677
0.0 -445.1344036774306 94.23567616745925
0.0 -443.9444691675305 99.69106427137574
0.0 -443.6606182057354 105.3624973759862
0.0 -443.3042827099066 111.04194221579154
0.0 -440.94127079645256 116.21874077965877
0.0 -440.44566206851607 121.88773016602848
0.0 -436.99588633408246 126.72645867019925
0.0 -436.3647930938873 132.3698128280347
0.0 -433.7542483611582 137.4127069402488
0.0 -432.0353221698317 142.72519188149548
0.0 -432.1425476988982 148.66680351815415
0.0 -429.34409372345755 153.62177314685215
0.0 -426.4892504202216 158.5304995134927
0.0 -427.31070186631035 164.83192673302472
0.0 -422.4702666153131 168.94932324808602
0.0 -419.4413077601241 173.73827829375085
0.0 -419.1159163706664 179.66037026783783
0.0 -417.79385835651345 185.19528050028043
0.0 -414.58060028927827 189.89187940452243
0.0 -411.31512837116674 194.5375675107784
0.0 -410.694230822137 200.44762101210696
0.0 -405.52383274276394 204.12354366319138
0.0 -405.65130652410437 210.4661909079155
0.0 -403.9199390715466 215.8997054663069
0.0 -398.6118928589099 219.39361629600097
0.0 -396.7596679455724 224.76157565678145
0.0 -394.8355952475651 230.11704136265303
0.0 -390.26651755012387 233.9167486079158
0.0 -388.21796805600087 239.21289530138188
0.0 -386.0980793191162 244.4939122884033
0.0 -383.06869043856096 249.21351970887522
0.0 -380.81308243456584 254.45116672297763
0.0 -375.1881327671865 257.407973906544
0.0 -373.63625961027384 263.1443434779551
0.0 -368.7580252049307 266.53802514267966
0.0 -366.262634355174 271.6388828485497
0.0 -361.30995469243317 274.9020127975637
0.0 -358.6976245701058 279.9303737141853
0.0 -355.2354390003031 284.3110671047857
0.0 -353.2657771867708 289.917730862786
0.0 -349.68144038946383 294.2310151006346
0.0 -345.28723400695696 297.8468163869222
0.0 -342.355332297221 302.72401035870837
0.0 -337.87371316186136 306.2308834102404
0.0 -333.357693610948 309.67345399693096
0.0 -330.9809169088204 315.12002894483953
0.0 -326.3732563294212 318.4595697304917
0.0 -321.7335854398792 321.73358543987905
0.0 -317.0628172316736 324.94179467885374
0.0 -314.4304884001026 330.2566698258688
0.0 -308.99285299913566 332.6250393392755
0.0 -306.90244236508755 338.6146642872162
0.0 -302.06159458111836 341.6061959026975
0.0 -297.84681638692234 345.2872340069568
0.0 -294.2310151006347 349.6814403894637
0.0 -287.3801577261313 350.17373537331997
0.0 -284.3110671047858 355.23543900030296
0.0 -281.776068485927 361.06266385298574
0.0 -276.1130348803725 362.9016285016508
0.0 -269.85178493507226 363.8530117607322
0.0 -269.467014429962 372.8103111961935
0.0 -261.99272709511956 372.0010899839706
0.0 -258.5394375281114 376.83731137275646
0.0 -252.2288857908994 377.48720398535556
0.0 -247.57754474360925 380.5540163218963
0.0 -245.02890990829056 386.9429328843658
0.0 -238.68830561870323 387.3666128628957
0.0 -233.91674860791596 390.26651755012375
0.0 -231.12411813010428 396.5635409598084
0.0 -224.26867746455184 395.88958095446367
0.0 -219.8758000680799 399.48796295310547
0.0 -215.42830872948105 403.0380178071982
0.0 -209.54511348599917 403.8760272832985
0.0 -205.0227663225008 407.31028134515486
0.0 -200.44762101210713 410.6942308221369
0.0 -195.39267769763913 413.1231069574135
0.0 -190.30830896462024 415.48976827236874
0.0 -183.97955655826527 415.05122908940297
0.0 -181.2363384280822 422.7923717774265
0.0 -174.12096172611575 420.36518729263554
0.0 -168.94932324808622 422.47026661531305
0.0 -163.39234658688454 423.5787306709715
0.0 -159.57575555424117 429.3012674559593
0.0 -153.62177314685232 429.3440937234575
0.0 -147.69087264166757 429.3057257227566
0.0 -142.41151014109676 431.08579398923865
0.0 -138.01671883888747 435.6608604418665
0.0 -132.3698128280349 436.3647930938872
0.0 -127.0049783595841 437.95631685349804
0.0 -121.88773016602866 440.445662068516
0.0 -115.70900946044954 439.0073178543629
0.0 -110.5559818559852 441.3642202035175
0.0 -105.36249737598598 443.66061820573543
0.0 -99.69106427137592 443.94446916753043
0.0 -94.44278754365165 446.1127210481502
0.0 -88.18082555129018 443.3149467422601
0.0 -83.83226868345459 450.26231324349703
0.0 -77.7876593859373 448.3013272869682
0.0 -72.59817150357475 451.19674809814126
0.0 -66.76236587718948 450.07531203397537
0.0 -61.23422237074252 450.8606991196399
0.0 -55.94167856604172 453.56314731161046
0.0 -50.59199314789247 456.2032992310814
0.0 -44.59779884995003 452.8090506358496
0.0 -39.295169053753646 456.3111763797123
0.0 -33.324747310649336 451.77257687544665
0.0 -27.96225575380733 455.141859482468
0.0 -22.178588795992976 451.4555462047379
0.0 -16.71047921537676 453.69236260311067
0.0 -11.117176520879338 452.8635648693805
0.0 -5.571278381716737 453.9658146349716
200.0 0.0 456.0
200.0 5.620364534859726 457.9655134423282
200.0 11.26442389201674 458.86175778155774
200.0 16.74728643831827 454.69168498769903
200.0 22.27672414464778 453.4531371171483
200.0 27.962255753807113 455.141859482468
200.0 33.47187643784868 453.76715778880407
200.0 39.03777711672015 453.32223854316396
200.0 44.793833130609194 454.799420089194
200.0 49.93065990412902 450.2398574110673
200.0 55.57444654044415 450.5857087078143
200.0 61.368803079249545 451.8516017550677
200.0 67.05582682610031 452.0536650539049
200.0 72.43931336024082 450.20944667998344
200.0 77.95862127469735 449.2866049293572
200.0 83.64922879549943 449.27920775606583
200.0 88.96118683935448 447.2380878638731
200.0 94.8570102960361 448.06935578958945
200.0 99.47196303121889 442.96876703749194
200.0 105.82461359254738 445.60649811014656
200.0 110.3130016760818 440.394188950323
200.0 115.19927814124058 437.0733649122731
200.0 121.88773016602858 440.445662068516
200.0 126.72645867019914 436.99588633408246
200.0 132.6600975052893 437.3217334296194
200.0 137.41270694024877 433.7542483611582
200.0 143.66623710269232 434.8839067116108
200.0 148.34149322599188 431.1969403735177
200.0 153.62177314685235 429.3440937234575
200.0 159.2273368739916 428.36392844404673
200.0 164.47203169648958 426.3777090674757
200.0 169.69195763598975 424.3272787762595
200.0 174.12096172611584 420.3651872926355
200.0 179.2663782277769 418.1968025189763
200.0 184.38479787227038 415.96543884510646
200.0 189.4754498444249 413.6714323061877
200.0 195.3926776976389 413.1231069574136
200.0 201.3248534891842 412.4915797535248
200.0 204.12354366319138 405.52383274276394
200.0 210.00565219695744 404.7636669037014
200.0 215.42830872948093 403.03801780719823
200.0 218.91143252392172 397.7358227647146
200.0 223.77577927232196 395.019493963355
200.0 230.11704136265294 394.8355952475651
200.0 233.9167486079159 390.26651755012375
200.0 240.26207466673878 389.92067844221145
200.0 243.95891466851631 385.25322575386645
200.0 249.21351970887522 383.068690438561
200.0 254.4511667229778 380.81308243456573
200.0 258.5394375281112 376.8373113727566
200.0 261.4169189037018 371.183505170819
200.0 265.36642942776683 367.1371108084254
200.0 271.6388828485496 366.2626343551741
200.0 275.5075238389681 362.105791597042
200.0 281.16083689534645 360.2743174253591
200.0 283.06134812850104 353.67396454315883
200.0 288.01455101029507 350.9467458266826
200.0 294.2310151006347 349.6814403894637
200.0 297.19364354396845 344.53002516045046
200.0 301.3991788035282 340.857059508174
200.0 305.5593244553934 337.1327620365064
200.0 310.3540549947266 334.0903478826202
200.0 313.05140731062835 328.808175659966
200.0 317.7611934810826 325.65752550413754
200.0 321.73358543987916 321.73358543987916
200.0 327.804717979989 319.85632222930957
200.0 330.2566698258689 314.43048840010255
200.0 334.0903478826202 310.3540549947266
200.0 337.87371316186136 306.2308834102404
200.0 340.1079231136505 300.736763025938
200.0 345.28723400695696 297.8468163869222
200.0 347.38593859259635 292.29952047196537
200.0 352.492766733408 289.28333757862237
200.0 356.7969134574472 285.56078608107055
200.0 359.48597099773247 280.54560530476584
200.0 361.3099546924331 274.90201279756377
200.0 367.8690494181354 272.83028145753445
200.0 369.5684824031832 267.1238230001361
200.0 373.6362596102738 263.1443434779553
200.0 374.36354346440146 256.8422420957604
200.0 377.48720398535556 252.22888579089943
200.0 383.9069151441158 249.75884469729723
200.0 385.2532257538664 243.95891466851634
200.0 388.2179680560009 239.2128953013818
200.0 391.1242461601241 234.43085135210907
200.0 393.97162239144353 229.61350297892722
200.0 395.88958095446367 224.26867746455176
200.0 397.7358227647146 218.91143252392177
200.0 402.1560965428499 214.9569119926549
200.0 402.98838766289566 209.08457477504095
200.0 406.41705704395946 204.573154992846
200.0 409.79555635644294 200.00900477356865
200.0 412.21911766429014 194.9651226042087
200.0 418.2172722216403 191.55759764491307
200.0 417.7938583565135 185.19528050028038
200.0 418.1968025189763 179.2663782277769
200.0 420.3651872926355 174.12096172611587
200.0 420.61325445436665 168.20668886018242
200.0 424.51172346980616 163.75224162341968
200.0 425.551911408309 158.18208083324328
200.0 429.3440937234575 153.62177314685235
200.0 430.25133304813716 148.01618293382967
200.0 432.03532216983166 142.72519188149568
200.0 434.70755440151237 137.71471288956806
200.0 433.49397208669063 131.49895879627144
200.0 438.91674737291356 127.28349804896925
200.0 438.5181099369251 121.35430465107878
200.0 441.9082472674974 116.47360643926318
200.0 443.3042827099066 111.04194221579164
200.0 442.6876782535299 105.13143926770533
200.0 445.89587342760757 100.12926675168949
200.0 448.06935578958945 94.8570102960361
200.0 446.2573025834698 88.7660965173384
200.0 446.3298912937722 83.10010913163404
200.0 449.2866049293572 77.95862127469732
200.0 447.2475424255099 71.96273893023921
200.0 451.0644885439401 66.90909635164496
200.0 450.8606991196399 61.23422237074243
200.0 451.57818824241303 55.696857215643405
200.0 451.23376438106965 50.04088211142297
200.0 455.7946048158662 44.89185027093873
200.0 455.3148637675296 39.20937174140902
200.0 454.76444824548275 33.54544100144836
200.0 456.1399775953682 28.023576490109352
200.0 455.4507280295586 22.374859493302665
200.0 456.69032975687577 16.820900884200956
200.0 453.86326368807676 11.141717749402169
200.0 457.9655134423282 5.620364534859735
200.0 458.0 2.804441170047439e-14
200.0 456.965588740489 -5.608092996573959
200.0 458.86175778155774 -11.264423892016776
200.0 456.69032975687577 -16.820900884201002
200.0 460.4447053105845 -22.6201978649397
200.0 455.141859482468 -27.96225575380709
200.0 455.76173870216144 -33.61900556504797
200.0 455.3148637675296 -39.209371741408965
200.0 452.8090506358496 -44.597798849950095
200.0 451.23376438106965 -50.04088211142291
200.0 448.6007496386169 -55.329625190045704
200.0 452.8425043904955 -61.50338378775663
200.0 450.07531203397537 -66.76236587718954
200.0 450.2094466799834 -72.43931336024085
200.0 452.242437856524 -78.47150694097827
200.0 449.27920775606583 -83.6492287954994
200.0 446.2573025834698 -88.76609651733833
200.0 447.09103841886986 -94.64989891984384
200.0 445.89587342760757 -100.12926675168953
200.0 445.60649811014656 -105.82461359254738
200.0 442.334251456712 -110.79896203588832
200.0 439.9742943254077 -115.9638751200541
200.0 436.59055780533424 -120.82087913612894
200.0 439.8771778923292 -127.56201773835426
200.0 435.407852758155 -132.0795281507804
200.0 434.7075544015124 -137.714712889568
200.0 434.8839067116108 -143.66623710269226
200.0 431.19694037351775 -148.34149322599188
200.0 429.3440937234575 -153.6217731468523
200.0 427.42658943213416 -158.87891819374218
200.0 425.4447162686409 -164.11213665995461
200.0 422.4702666153131 -168.94932324808605
200.0 420.3651872926355 -174.12096172611584
200.0 419.11591637066635 -179.6603702678379
200.0 419.62227786792056 -186.00576312829037
200.0 415.4897682723688 -190.3083089646201
200.0 411.3151283711668 -194.53756751077825
200.0 407.09953295936106 -198.69315605795308
200.0 411.7764028511325 -207.27082297077368
200.0 404.7636669037014 -210.00565219695747
200.0 400.3922540141532 -214.01411851900295
200.0 400.36403304730084 -220.35798384015908
200.0 396.7596679455724 -224.7615756567815
200.0 393.9716223914436 -229.61350297892716
200.0 390.2665175501238 -233.9167486079158
200.0 387.36661286289564 -238.68830561870328
200.0 384.4083721886168 -243.42391704862916
200.0 380.5540163218964 -247.57754474360914
200.0 379.9816128222631 -253.89559648995825
200.0 375.18813276718646 -257.40797390654404
200.0 374.4538444234253 -263.72015166937314
200.0 369.5684824031832 -267.1238230001361
200.0 367.06584188665477 -272.234582153042
200.0 362.9016285016509 -276.1130348803724
200.0 361.0626638529857 -281.77606848592706
200.0 356.0161762288751 -284.9359265929281
200.0 352.49276673340813 -289.2833375786223
200.0 349.6814403894638 -294.23101510063464
200.0 344.5300251604504 -297.19364354396845
200.0 343.10446869174433 -303.3864261362987
200.0 337.8737131618613 -306.2308834102404
200.0 333.3576936109478 -309.67345399693113
200.0 329.53242274291745 -313.74094785536545
200.0 327.08898715470514 -319.15794597990055
200.0 318.90515831513295 -318.9051583151329
200.0 319.1579459799006 -327.0889871547051
200.0 314.4304884001026 -330.25666982586887
200.0 309.67345399693124 -333.35769361094776
200.0 306.23088341024044 -337.87371316186125
200.0 300.07434724834775 -339.35878671912707
200.0 297.84681638692217 -345.287234006957
200.0 293.5871835577449 -348.9162731238413
200.0 288.01455101029507 -350.9467458266826
200.0 283.6862076166434 -354.4547017717309
200.0 280.5456053047659 -359.48597099773247
200.0 276.1130348803725 -362.90162850165086
200.0 271.63888284854966 -366.26263435517404
200.0 267.7096208575926 -370.3789396014358
200.0 261.41691890370186 -371.18350517081893
200.0 257.40797390654393 -375.1881327671866
200.0 253.3400262569386 -379.1501432099607
200.0 247.57754474360905 -380.5540163218965
200.0 244.4939122884034 -386.09807931911615
200.0 240.78666434941724 -390.77203363531675
200.0 234.43085135210913 -391.124246160124
200.0 231.12411813010436 -396.5635409598083
200.0 224.76157565678156 -396.7596679455724
200.0 219.87580006808003 -399.48796295310535
200.0 214.956911992655 -402.15609654284987
200.0 211.8478070407905 -408.31422538531274
200.0 206.821211641119 -410.8831785499371
200.0 200.88623725064562 -411.5929052878309
200.0 194.9651226042086 -412.21911766429014
200.0 191.14116808481546 -417.3081042385498
200.0 185.1952805002804 -417.7938583565135
200.0 179.2663782277769 -418.1968025189763
200.0 172.59022799665553 -416.6696691625903
200.0 168.20668886018248 -420.6132544543666
200.0 163.75224162341968 -424.51172346980616
200.0 158.53049951349283 -426.48925042022154
200.0 153.62177314685226 -429.3440937234575
200.0 148.34149322599185 -431.19694037351775
200.0 142.4115101410967 -431.08579398923865
200.0 137.41270694024874 -433.7542483611582
200.0 131.78924347352591 -434.4509124224228
200.0 127.28349804896929 -438.91674737291356
200.0 121.8877301660286 -440.445662068516
200.0 116.2187407796587 -440.94127079645256
200.0 110.79896203588841 -442.334251456712
200.0 105.13143926770546 -442.68767825352984
200.0 99.69106427137586 -443.94446916753043
200.0 93.82145341507493 -443.1777689359913
200.0 88.76609651733831 -446.2573025834698
200.0 83.2831490195891 -447.3129967812034
200.0 78.12958316345765 -450.2718825717461
200.0 71.96273893023925 -447.2475424255099
200.0 67.05582682610034 -452.0536650539049
200.0 61.50338378775671 -452.8425043904955
200.0 55.69685721564344 -451.57818824241303
200.0 50.261326526010755 -453.2215783210744
200.0 44.49978170962061 -451.81386590917737
200.0 39.12357442906471 -454.31855115534677
200.0 33.471876437848614 -453.76715778880407
200.0 27.839614281202653 -453.1456232566677
200.0 22.571130190612266 -459.4459098543793
200.0 16.78409366125963 -455.6910073722874
200.0 11.092635292356372 -451.8638660506843
200.0 5.595821458288323 -455.9656640386499
200.0 5.5843894041119303e-14 -456.0
200.0 -5.595821458288212 -455.9656640386499
200.0 -11.239882663493733 -457.86205896286157
200.0 -16.747286438318156 -454.69168498769903
200.0 -22.4239271676301 -456.4495234857638
200.0 -28.146217962713788 -458.1362138211685
200.0 -33.471876437848714 -453.76715778880407
200.0 -39.123574429064604 -454.31855115534677
200.0 -44.69581599027963 -453.8042353625218
200.0 -50.371548733304536 -454.21548529107673
200.0 -55.57444654044411 -450.5857087078143
200.0 -61.36880307924948 -451.8516017550677
200.0 -66.76236587718952 -450.07531203397537
200.0 -72.43931336024072 -450.20944667998344
200.0 -78.30054505221784 -451.2571602141351
200.0 -83.46618890754434 -448.2961022686346
200.0 -88.7660965173384 -446.2573025834698
200.0 -94.44278754365168 -446.1127210481502
200.0 -99.91016551153263 -444.920171297569
200.0 -105.59355548426669 -444.633558157941
200.0 -110.55598185598504 -441.3642202035175
200.0 -116.21874077965859 -440.9412707964526
200.0 -122.1544429235034 -441.4094381343115
200.0 -127.84053742773928 -440.8376084117447
200.0 -132.07952815078025 -435.40785275815506
200.0 -137.41270694024882 -433.75424836115815
200.0 -143.03887362189457 -432.9848503504247
200.0 -148.01618293382967 -430.25133304813716
200.0 -153.28488329346015 -428.4025496582745
200.0 -157.83366215299387 -424.61457239639645
200.0 -163.3923465868846 -423.5787306709715
200.0 -168.20668886018237 -420.61325445436665
200.0 -176.03437888794124 -424.98458495519196
200.0 -180.0543623078989 -420.0350302223564
200.0 -185.6005218142853 -418.70806811221706
200.0 -189.47544984442482 -413.67143230618774
200.0 -194.9651226042087 -412.21911766429014
200.0 -199.5703885350301 -408.896881890749
200.0 -205.02276632250064 -407.310281345155
200.0 -209.08457477504098 -402.98838766289566
200.0 -214.48551525582891 -401.27417527850156
200.0 -219.87580006807994 -399.4879629531054
200.0 -225.25447384901125 -397.62975493668114
200.0 -228.60642621147574 -392.2436766792004
200.0 -233.9167486079158 -390.2665175501238
200.0 -240.78666434941715 -390.7720336353168
200.0 -243.9589146685162 -385.2532257538665
200.0 -249.21351970887528 -383.06869043856096
200.0 -251.67331555787985 -376.655734373053
200.0 -257.9737057173276 -376.0127220699715
200.0 -260.2653025208661 -369.54833554451585
200.0 -265.9522272852232 -367.94756800667807
200.0 -271.63888284854954 -366.2626343551741
200.0 -274.90201279756377 -361.30995469243317
200.0 -281.77606848592706 -361.0626638529857
200.0 -285.5607860810705 -356.7969134574472
200.0 -289.9177308627859 -353.26577718677083
200.0 -294.23101510063475 -349.6814403894637
200.0 -298.499989229876 -346.0444428534634
200.0 -302.7240103587085 -342.35533229722085
200.0 -305.5593244553934 -337.1327620365064
200.0 -310.3540549947266 -334.0903478826202
200.0 -313.05140731062835 -328.808175659966
200.0 -319.85632222930957 -327.804717979989
200.0 -322.44069222106566 -322.4406922210657
200.0 -325.6575255041374 -317.7611934810827
200.0 -330.9809169088203 -315.12002894483965
200.0 -334.8230021542926 -311.0346559925221
200.0 -340.83751766328123 -308.91711922962844
200.0 -341.6061959026975 -302.0615945811183
200.0 -343.77281631394385 -296.5404707010148
200.0 -348.9162731238413 -293.58718355774494
200.0 -352.4927667334079 -289.28333757862254
200.0 -354.45470177173087 -283.68620761664346
200.0 -357.9092781424793 -279.31514212360446
200.0 -362.10579159704196 -275.50752383896815
200.0 -366.26263435517416 -271.6388828485495
200.0 -367.94756800667795 -265.95222728522333
200.0 -372.81867479712224 -262.56853528653744
200.0 -376.83731137275646 -258.53943752811136
200.0 -376.655734373053 -251.6733155578798
200.0 -380.55401632189637 -247.57754474360925
200.0 -383.56351862336703 -242.88891942874216
200.0 -389.06932324910605 -239.73748498406047
200.0 -387.69333172012296 -232.37444037533623
200.0 -394.8355952475652 -230.11704136265283
200.0 -398.4998419277898 -225.74737204124116
200.0 -398.61189285891004 -219.39361629600077
200.0 -400.39225401415314 -214.01411851900303
200.0 -402.1007480424929 -208.62403606408267
200.0 -409.09672994754595 -205.92198898180996
200.0 -411.59290528783083 -200.88623725064565
200.0 -413.1231069574135 -195.3926776976391
200.0 -413.6714323061877 -189.47544984442493
200.0 -416.87964860081007 -184.79003918627524
200.0 -417.27768866728616 -178.87238618771588
200.0 -420.36518729263554 -174.12096172611572
200.0 -423.39877269578625 -169.320640442038
200.0 -425.44471626864095 -164.1121366599545
200.0 -430.2386064678719 -159.92417423449058
200.0 -431.22718185382354 -154.29555285363674
200.0 -432.14254769889817 -148.66680351815432
200.0 -432.03532216983166 -142.72519188149562
200.0 -434.7075544015123 -137.7147128895682
200.0 -434.4509124224228 -131.78924347352594
200.0 -436.03545581466693 -126.44793898081396
200.0 -441.4094381343115 -122.15444292350352
200.0 -439.0073178543629 -115.70900946044951
200.0 -442.334251456712 -110.79896203588844
200.0 -442.6876782535299 -105.13143926770528
200.0 -443.94446916753043 -99.6910642713759
200.0 -446.1127210481502 -94.44278754365162
200.0 -447.23808786387303 -88.96118683935467
200.0 -446.3298912937722 -83.10010913163399
200.0 -448.3013272869682 -77.78765938593727
200.0 -451.19674809814126 -72.59817150357472
200.0 -451.0644885439401 -66.90909635164482
200.0 -454.82430966135104 -61.772545204771
200.0 -453.5631473116105 -55.941678566041695
200.0 -455.2093922610791 -50.48177094059856
200.0 -452.8090506358496 -44.59779884995
200.0 -455.3148637675296 -39.209371741409186
200.0 -451.77257687544665 -33.324747310649315
200.0 -456.1399775953682 -28.02357649010951
200.0 -456.4495234857638 -22.42392716763004
200.0 -453.69236260311067 -16.710479215377138
200.0 -458.86175778155774 -11.264423892016787
200.0 -455.9656640386499 -5.595821458288149
200.0 -455.0 -8.358214404180685e-14
200.0 -455.9656640386499 5.595821458288386
200.0 -457.86205896286157 11.239882663493706
200.0 -453.69236260311067 16.71047921537697
200.0 -455.4507280295586 22.374859493302452
200.0 -455.141859482468 27.962255753807135
200.0 -452.76986733212533 33.39831187424881
200.0 -452.3259259309812 38.951979804375696
200.0 -450.8186811825052 44.40176456929072
200.0 -450.2398574110673 49.930659904128966
200.0 -450.5857087078143 55.57444654044428
200.0 -451.8516017550677 61.368803079249446
200.0 -452.05366505390487 67.05582682610041
200.0 -451.1967480981413 72.59817150357455
200.0 -451.25716021413507 78.30054505221801
200.0 -447.3129967812035 83.28314901958896
200.0 -448.2188731442763 89.15627716137064
200.0 -447.0910384188699 94.64989891984368
200.0 -446.8715755576461 100.34836799184635
200.0 -442.68767825352984 105.13143926770552
200.0 -443.3042827099066 111.04194221579154
200.0 -439.00731785436284 115.70900946044974
200.0 -440.44566206851607 121.88773016602848
200.0 -438.91674737291356 127.28349804896935
200.0 -436.3647930938873 132.3698128280347
200.0 -433.7542483611582 137.4127069402488
200.0 -432.0353221698317 142.72519188149548
200.0 -431.1969403735177 148.34149322599188
200.0 -430.28563778864054 153.95866300024437
200.0 -427.42658943213416 158.87891819374212
200.0 -425.4447162686409 164.11213665995473
200.0 -420.61325445436665 168.20668886018234
200.0 -419.4413077601241 173.73827829375085
200.0 -418.1968025189763 179.26637822777678
200.0 -416.87964860080996 184.79003918627546
200.0 -412.7622643230972 189.05902028432715
200.0 -411.31512837116674 194.5375675107784
200.0 -403.50483509658534 196.93869110379873
200.0 -405.52383274276394 204.12354366319138
200.0 -406.5389461445072 210.9267296188737
200.0 -403.03801780719823 215.4283087294809
200.0 -399.48796295310535 219.87580006808008
200.0 -395.019493963355 223.77577927232187
200.0 -393.9716223914435 229.61350297892733
200.0 -391.12424616012413 234.43085135210902
200.0 -389.06932324910616 239.73748498406036
200.0 -382.7186650581174 242.35392180885492
200.0 -380.5540163218964 247.57754474360908
200.0 -379.9816128222633 253.89559648995805
200.0 -376.8373113727566 258.5394375281112
200.0 -372.8186747971223 262.56853528653727
200.0 -366.3266536101729 264.78063157031033
200.0 -366.262634355174 271.6388828485497
200.0 -362.901628501651 276.11303488037237
200.0 -356.332585287226 278.0846789424434
200.0 -356.79691345744726 285.56078608107043
200.0 -350.94674582668256 288.0145510102951
200.0 -349.68144038946383 294.2310151006346
200.0 -343.0156074674375 295.8872978580609
200.0 -341.60619590269755 302.0615945811182
200.0 -338.6146642872163 306.9024423650874
200.0 -334.0903478826204 310.3540549947264
200.0 -328.08392857701455 312.36186676589125
200.0 -324.94179467885357 317.06281723167376
200.0 -321.02647865869267 321.0264786586925
200.0 -318.4595697304915 326.3732563294214
200.0 -314.4304884001026 330.2566698258688
200.0 -308.99285299913566 332.6250393392755
200.0 -306.2308834102405 337.87371316186125
200.0 -301.3991788035282 340.857059508174
200.0 -298.4999892298761 346.0444428534633
200.0 -294.8748466435245 350.44660765508615
200.0 -289.9177308627859 353.2657771867709
200.0 -285.5607860810706 356.79691345744715
200.0 -280.54560530476573 359.4859709977325
200.0 -275.50752383896815 362.1057915970419
200.0 -271.0431835440571 365.4594268236935
200.0 -268.2954187150491 371.1893967996883
200.0 -262.56853528653744 372.8186747971222
200.0 -257.40797390654416 375.1881327671864
200.0 -251.11774532486018 375.82426476075045
200.0 -248.66819472045333 382.230465733006
200.0 -242.88891942874216 383.563518623367
200.0 -238.68830561870323 387.3666128628957
200.0 -233.91674860791596 390.26651755012375
200.0 -229.6135029789271 393.97162239144365
200.0 -226.24027023347097 399.3699289188985
200.0 -220.84016761223816 401.24010314149626
200.0 -215.42830872948105 403.0380178071982
200.0 -210.46619090791566 405.65130652410426
200.0 -205.4723776521554 408.2035056463504
200.0 -199.13177229649156 407.99820742505506
200.0 -195.8202327910694 414.02709625053694
200.0 -190.30830896462024 415.48976827236874
200.0 -184.79003918627524 416.87964860081007
200.0 -179.660370267838 419.1159163706663
200.0 -174.88632859084592 422.2129463576581
200.0 -169.32064044203804 423.39877269578625
200.0 -164.47203169648952 426.3777090674757
200.0 -158.53049951349288 426.48925042022154
200.0 -152.94799344006788 427.46100559309144
200.0 -147.69087264166757 429.3057257227566
200.0 -141.78414666029897 429.1867376280526
200.0 -138.01671883888747 435.6608604418665
200.0 -132.95038218254382 438.27867376535164
200.0 -126.72645867019904 436.99588633408246
200.0 -121.35430465107886 438.5181099369251
200.0 -115.70900946044954 439.0073178543629
200.0 -110.5559818559852 441.3642202035175
200.0 -105.59355548426664 444.633558157941
200.0 -100.12926675168966 445.8958734276075
200.0 -94.44278754365165 446.1127210481502
200.0 -88.76609651733857 446.2573025834698
200.0 -83.28314901958916 447.3129967812034
200.0 -77.7876593859373 448.3013272869682
200.0 -72.43931336024089 450.2094466799834
200.0 -66.76236587718948 450.07531203397537
200.0 -60.96506095372827 448.87889384878434
200.0 -55.69685721564329 451.57818824241303
200.0 -50.812437562480234 458.19111317108616
200.0 -44.69581599027959 453.8042353625218
200.0 -39.20937174140921 455.3148637675296
200.0 -33.47187643784867 453.76715778880407
200.0 -27.839614281202913 453.1456232566677
200.0 -22.37485949330265 455.4507280295586
200.0 -16.78409366125948 455.6910073722874
200.0 -11.166258977925164 454.86296250677293
200.0 -5.6080929965738955 456.965588740489
